0.554585 0.712062 2.788088
0.576062 0.696707 2.721103
0.601983 0.688216 2.680754
0.629690 0.682639 2.651500
0.658611 0.678958 2.629322
0.688580 0.676750 2.612517
0.719594 0.675816 2.600278
0.751746 0.676084 2.592277
0.785226 0.677573 2.588544
0.820348 0.680406 2.589495
0.857643 0.684861 2.596124
0.898126 0.691551 2.610659
0.944354 0.702153 2.639291
0.375641 0.846699 2.765800
0.396800 0.820334 2.675008
0.421701 0.805257 2.620867
0.447710 0.794396 2.580219
0.474302 0.786046 2.547470
0.501297 0.779469 2.520191
0.528633 0.774265 2.497068
0.556299 0.770198 2.477311
0.584308 0.767114 2.460407
0.612695 0.764915 2.446017
0.641507 0.763535 2.433918
0.670802 0.762939 2.423968
0.700655 0.763111 2.416097
0.731155 0.764054 2.410294
0.762410 0.765795 2.406609
0.794559 0.768380 2.405165
0.827778 0.771890 2.406173
0.862299 0.776443 2.409965
0.898449 0.782224 2.417068
0.936713 0.789532 2.428337
0.977885 0.798881 2.445275
1.023495 0.811307 2.470935
1.077564 0.829650 2.513767
0.298863 0.970175 2.694937
0.322298 0.942076 2.613126
0.347651 0.924289 2.559715
0.373590 0.911007 2.518538
0.399804 0.900504 2.484780
0.426194 0.891979 2.456214
0.452727 0.884989 2.431592
0.479406 0.879256 2.410138
0.506249 0.874597 2.391335
0.533284 0.870886 2.374823
0.560546 0.868035 2.360348
0.588075 0.865983 2.347729
0.615919 0.864689 2.336838
0.644131 0.864128 2.327592
0.672772 0.864289 2.319946
0.701910 0.865177 2.313888
0.731628 0.866806 2.309442
0.762020 0.869209 2.306667
0.793203 0.872436 2.305670
0.825318 0.876558 2.306610
0.858549 0.881680 2.309726
0.893134 0.887949 2.315363
0.929403 0.895584 2.324041
0.967843 0.904925 2.336579
1.009233 0.916540 2.354362
1.055017 0.931522 2.380081
1.108673 0.952597 2.420506
1.191642 0.997243 2.519515
0.263837 1.114955 2.678777
0.286126 1.075256 2.580081
0.311088 1.052659 2.522232
0.336647 1.036136 2.478696
0.362436 1.023141 2.443346
0.388343 1.012582 2.413546
0.414336 1.003869 2.387875
0.440415 0.996645 2.365464
0.466597 0.990674 2.345742
0.492908 0.985794 2.328314
0.519378 0.981891 2.312896
0.546044 0.978883 2.299284
0.572946 0.976714 2.287330
0.600129 0.975344 2.276928
0.627643 0.974750 2.268010
0.655543 0.974921 2.260534
0.683892 0.975860 2.254489
0.712763 0.977584 2.249895
0.742242 0.980123 2.246798
0.772428 0.983523 2.245283
0.803443 0.987851 2.245473
0.835440 0.993203 2.247556
0.868613 0.999712 2.251795
0.903223 1.007568 2.258576
0.939634 1.017052 2.268476
0.978393 1.028608 2.282417
1.020406 1.042998 2.301998
1.067437 1.061757 2.330477
1.124247 1.089165 2.377020
0.262642 1.267332 2.666645
0.284014 1.218706 2.561037
0.308256 1.191026 2.499275
0.333150 1.170808 2.452945
0.358307 1.154952 2.415510
0.383657 1.142254 2.384424
0.409145 1.131897 2.357962
0.434753 1.123377 2.335053
0.460486 1.116373 2.315018
0.486363 1.110671 2.297400
0.512413 1.106125 2.281878
0.538669 1.102629 2.268227
0.565169 1.100111 2.256282
0.591959 1.098522 2.245929
0.619087 1.097833 2.237091
0.646609 1.098032 2.229728
0.674591 1.099121 2.223829
0.703107 1.101121 2.219415
0.732245 1.104069 2.216538
0.762111 1.108025 2.215294
0.792835 1.113073 2.215825
0.824580 1.119336 2.218341
0.857563 1.126987 2.223149
0.892077 1.136281 2.230704
0.928548 1.147607 2.241712
0.967647 1.161605 2.257350
1.010353 1.179202 2.279319
1.058467 1.202166 2.310894
1.117109 1.235754 2.361928
0.262642 1.432248 2.666645
0.284014 1.377295 2.561038
0.308256 1.346013 2.499275
0.333150 1.323164 2.452945
0.358298 1.305213 2.415452
0.383582 1.290640 2.383955
0.408964 1.278624 2.356920
0.434447 1.268667 2.333410
0.460047 1.260442 2.312811
0.485790 1.253723 2.294693
0.511711 1.248351 2.278753
0.537848 1.244213 2.264770
0.564243 1.241230 2.252584
0.590945 1.239345 2.242081
0.618006 1.238527 2.233186
0.645487 1.238763 2.225857
0.673455 1.240055 2.220082
0.701988 1.242426 2.215880
0.731176 1.245919 2.213303
0.761129 1.250597 2.212440
0.791978 1.256556 2.213430
0.823885 1.263926 2.216469
0.857060 1.272894 2.221844
0.891784 1.283724 2.229973
0.928450 1.296808 2.241477
0.967647 1.312763 2.257350
1.010353 1.332650 2.279319
1.058467 1.358603 2.310894
1.117109 1.396562 2.361928
0.262642 1.606059 2.666645
0.284014 1.544437 2.561038
0.308256 1.509359 2.499275
0.333150 1.483737 2.452945
0.358298 1.463608 2.415452
0.383582 1.447266 2.383955
0.408964 1.433792 2.356920
0.434447 1.422627 2.333411
0.460047 1.413403 2.312810
0.485790 1.405869 2.294693
0.511711 1.399845 2.278753
0.537848 1.395205 2.264770
0.564243 1.391859 2.252584
0.590945 1.389746 2.242081
0.618006 1.388829 2.233186
0.645487 1.389093 2.225858
0.673455 1.390542 2.220082
0.701988 1.393202 2.215880
0.731177 1.397118 2.213303
0.761129 1.402364 2.212440
0.791978 1.409046 2.213429
0.823885 1.417310 2.216469
0.857060 1.427366 2.221845
0.891784 1.439510 2.229972
0.928450 1.454183 2.241477
0.967647 1.472074 2.257350
1.010353 1.494374 2.279319
1.058467 1.523477 2.310894
1.117109 1.566042 2.361928
0.262642 1.790417 2.666645
0.284014 1.721721 2.561038
0.308256 1.682616 2.499275
0.333150 1.654053 2.452945
0.358298 1.631613 2.415452
0.383582 1.613396 2.383955
0.408964 1.598375 2.356920
0.434447 1.585928 2.333411
0.460047 1.575646 2.312811
0.485790 1.567247 2.294693
0.511711 1.560532 2.278753
0.537848 1.555359 2.264770
0.564243 1.551629 2.252584
0.590945 1.549273 2.242081
0.618006 1.548251 2.233186
0.645487 1.548546 2.225857
0.673455 1.550161 2.220082
0.701988 1.553125 2.215880
0.731177 1.557491 2.213303
0.761129 1.563339 2.212440
0.791978 1.570788 2.213430
0.823885 1.580002 2.216469
0.857060 1.591212 2.221844
0.891784 1.604750 2.229972
0.928450 1.621106 2.241477
0.967647 1.641052 2.257350
1.010353 1.665911 2.279319
1.058467 1.698354 2.310894
1.117109 1.745806 2.361928
0.262642 1.987288 2.666645
0.284014 1.911039 2.561038
0.308256 1.867634 2.499275
0.333150 1.835930 2.452945
0.358298 1.811023 2.415452
0.383582 1.790802 2.383955
0.408964 1.774130 2.356920
0.434447 1.760315 2.333411
0.460047 1.748902 2.312811
0.485790 1.739579 2.294693
0.511711 1.732126 2.278753
0.537848 1.726384 2.264770
0.564243 1.722244 2.252584
0.590945 1.719629 2.242081
0.618006 1.718494 2.233186
0.645487 1.718821 2.225857
0.673455 1.720614 2.220082
0.701988 1.723905 2.215880
0.731177 1.728751 2.213303
0.761129 1.735242 2.212440
0.791978 1.743510 2.213430
0.823885 1.753736 2.216469
0.857060 1.766179 2.221845
0.891784 1.781206 2.229972
0.928450 1.799361 2.241477
0.967647 1.821499 2.257350
1.010353 1.849093 2.279319
1.058467 1.885103 2.310894
1.117109 1.937772 2.361928
0.714360 1.825124 -2.354929
0.685408 1.825124 -2.363518
0.656352 1.825124 -2.371751
0.263981 2.210261 2.680242
0.284014 2.114674 2.561038
0.308256 2.066644 2.499275
0.333150 2.031562 2.452945
0.358298 2.004000 2.415452
0.383582 1.981625 2.383955
0.408964 1.963177 2.356920
0.434447 1.947889 2.333411
0.460047 1.935260 2.312811
0.485790 1.924944 2.294693
0.511711 1.916696 2.278753
0.537848 1.910343 2.264770
0.564243 1.905761 2.252584
0.590945 1.902868 2.242081
0.618006 1.901612 2.233186
0.645487 1.901974 2.225857
0.673455 1.903958 2.220082
0.701988 1.907599 2.215880
0.731177 1.912961 2.213303
0.761129 1.920144 2.212440
0.791978 1.929293 2.213429
0.823885 1.940609 2.216469
0.857060 1.954378 2.221844
0.891784 1.971006 2.229973
0.928450 1.991095 2.241477
0.967647 2.015593 2.257350
1.010352 2.046126 2.279319
1.058467 2.085975 2.310894
1.117109 2.144255 2.361928
0.697603 1.825124 -2.111675
0.671637 1.825124 -2.120076
0.645570 1.825124 -2.128159
0.619406 1.825124 -2.135921
0.593148 1.825124 -2.143361
0.566801 1.825124 -2.150478
0.540368 1.825124 -2.157272
0.513855 1.825124 -2.163741
0.487264 1.825124 -2.169883
0.460599 1.825124 -2.175699
0.433865 1.825124 -2.181188
0.407066 1.825124 -2.186348
0.380206 1.825124 -2.191179
0.353288 1.825124 -2.195679
0.326317 1.825124 -2.199849
0.299297 1.825124 -2.203688
0.272232 1.825124 -2.207195
0.245125 1.825124 -2.210370
0.217982 1.825124 -2.213211
0.190806 1.825124 -2.215720
0.163602 1.825124 -2.217894
0.136372 1.825124 -2.219735
0.109123 1.825124 -2.221241
0.081856 1.825124 -2.222413
0.054578 1.825124 -2.223250
0.027291 1.825124 -2.223752
0.000000 1.825124 -2.223920
-0.027291 1.825124 -2.223752
-0.054578 1.825124 -2.223250
-0.081856 1.825124 -2.222413
-0.109123 1.825124 -2.221241
-0.136372 1.825124 -2.219735
-0.163602 1.825124 -2.217894
-0.190806 1.825124 -2.215720
-0.217982 1.825124 -2.213211
-0.245125 1.825124 -2.210370
-0.272232 1.825124 -2.207195
0.335162 2.257178 2.467757
0.358952 2.217229 2.419858
0.383745 2.189412 2.384968
0.408974 2.168159 2.356976
0.434447 2.151224 2.333411
0.460047 2.137276 2.312810
0.485790 2.125884 2.294693
0.511711 2.116775 2.278753
0.537848 2.109758 2.264770
0.564243 2.104699 2.252584
0.590945 2.101503 2.242081
0.618006 2.100116 2.233186
0.645487 2.100516 2.225858
0.673455 2.102707 2.220082
0.701988 2.106728 2.215880
0.731177 2.112650 2.213303
0.761129 2.120583 2.212440
0.791978 2.130687 2.213430
0.823885 2.143184 2.216469
0.857060 2.158390 2.221844
0.891899 2.177033 2.230259
0.929258 2.200853 2.243426
0.970685 2.232982 2.264436
1.021168 2.283906 2.303719
0.701616 1.825124 -1.887532
0.678400 1.825124 -1.896000
0.655082 1.825124 -1.904182
0.631665 1.825124 -1.912078
0.608154 1.825124 -1.919686
0.584550 1.825124 -1.927004
0.560859 1.825124 -1.934032
0.537083 1.825124 -1.940769
0.513227 1.825124 -1.947214
0.489293 1.825124 -1.953365
0.465285 1.825124 -1.959223
0.441207 1.825124 -1.964785
0.417063 1.825124 -1.970051
0.392856 1.825124 -1.975021
0.368590 1.825124 -1.979693
0.344268 1.825124 -1.984067
0.319895 1.825124 -1.988142
0.295473 1.825124 -1.991918
0.271007 1.825124 -1.995394
0.246500 1.825124 -1.998570
0.221956 1.825124 -2.001444
0.197378 1.825124 -2.004017
0.172771 1.825124 -2.006289
0.148138 1.825124 -2.008258
0.123482 1.825124 -2.009924
0.098808 1.825124 -2.011288
0.074119 1.825124 -2.012349
0.049419 1.825124 -2.013107
0.024711 1.825124 -2.013562
0.000000 1.825124 -2.013714
-0.024711 1.825124 -2.013562
-0.049419 1.825124 -2.013107
-0.074119 1.825124 -2.012349
-0.098808 1.825124 -2.011288
-0.123482 1.825124 -2.009924
-0.148138 1.825124 -2.008258
-0.172771 1.825124 -2.006289
-0.197378 1.825124 -2.004017
-0.221956 1.825124 -2.001444
-0.246500 1.825124 -1.998570
-0.271007 1.825124 -1.995394
0.503911 2.433043 2.380289
0.525529 2.398566 2.340286
0.549734 2.379202 2.314820
0.575152 2.367075 2.296136
0.601475 2.359969 2.282034
0.628641 2.356996 2.271617
0.656707 2.357846 2.264547
0.685827 2.362603 2.260870
0.716297 2.371797 2.261048
0.748679 2.386747 2.266284
0.784341 2.411056 2.279912
0.832240 2.470363 2.325955
0.719084 1.825124 -1.677497
0.698445 1.825124 -1.686195
0.677700 1.825124 -1.694638
0.656853 1.825124 -1.702827
0.635907 1.825124 -1.710760
0.614866 1.825124 -1.718434
0.593732 1.825124 -1.725850
0.572508 1.825124 -1.733006
0.551198 1.825124 -1.739902
0.529805 1.825124 -1.746535
0.508333 1.825124 -1.752905
0.486784 1.825124 -1.759010
0.465161 1.825124 -1.764852
0.443469 1.825124 -1.770427
0.421710 1.825124 -1.775736
0.399887 1.825124 -1.780777
0.378004 1.825124 -1.785550
0.356064 1.825124 -1.790055
0.334070 1.825124 -1.794289
0.312027 1.825124 -1.798254
0.289936 1.825124 -1.801947
0.267801 1.825124 -1.805369
0.245626 1.825124 -1.808520
0.223415 1.825124 -1.811398
0.201169 1.825124 -1.814003
0.178893 1.825124 -1.816335
0.156591 1.825124 -1.818394
0.134264 1.825124 -1.820179
0.111918 1.825124 -1.821689
0.089555 1.825124 -1.822925
0.067178 1.825124 -1.823887
0.044791 1.825124 -1.824574
0.022397 1.825124 -1.824986
0.000000 1.825124 -1.825124
-0.022397 1.825124 -1.824986
-0.044791 1.825124 -1.824574
-0.067178 1.825124 -1.823887
-0.089555 1.825124 -1.822925
-0.111918 1.825124 -1.821689
-0.134264 1.825124 -1.820179
-0.156591 1.825124 -1.818394
-0.178893 1.825124 -1.816335
-0.201169 1.825124 -1.814003
-0.223415 1.825124 -1.811398
-0.245626 1.825124 -1.808520
-0.267801 1.825124 -1.805369
0.707260 1.825124 -1.495375
0.688856 1.825124 -1.503942
0.670348 1.825124 -1.512282
0.651740 1.825124 -1.520394
0.633033 1.825124 -1.528278
0.614231 1.825124 -1.535931
0.595337 1.825124 -1.543353
0.576353 1.825124 -1.550542
0.557282 1.825124 -1.557498
0.538127 1.825124 -1.564220
0.518891 1.825124 -1.570706
0.499577 1.825124 -1.576955
0.480188 1.825124 -1.582967
0.460726 1.825124 -1.588740
0.441195 1.825124 -1.594275
0.421598 1.825124 -1.599568
0.401937 1.825124 -1.604622
0.382215 1.825124 -1.609433
0.362436 1.825124 -1.614002
0.342603 1.825124 -1.618329
0.322718 1.825124 -1.622411
0.302784 1.825124 -1.626249
0.282804 1.825124 -1.629842
0.262782 1.825124 -1.633190
0.242721 1.825124 -1.636292
0.222623 1.825124 -1.639147
0.202491 1.825124 -1.641755
0.182329 1.825124 -1.644117
0.162140 1.825124 -1.646230
0.141926 1.825124 -1.648096
0.121690 1.825124 -1.649714
0.101436 1.825124 -1.651083
0.081168 1.825124 -1.652203
0.060886 1.825124 -1.653075
0.040596 1.825124 -1.653698
0.020300 1.825124 -1.654071
0.000000 1.825124 -1.654196
-0.020300 1.825124 -1.654071
-0.040596 1.825124 -1.653698
-0.060886 1.825124 -1.653075
-0.081168 1.825124 -1.652203
-0.101436 1.825124 -1.651083
-0.121690 1.825124 -1.649714
-0.141926 1.825124 -1.648096
-0.162140 1.825124 -1.646230
-0.182329 1.825124 -1.644117
-0.202491 1.825124 -1.641755
-0.222623 1.825124 -1.639147
-0.242721 1.825124 -1.636292
-0.262782 1.825124 -1.633190
0.712587 1.885379 -1.373436
0.691330 1.873591 -1.373436
0.670333 1.862228 -1.373436
0.649587 1.851280 -1.373436
0.629080 1.840735 -1.373436
0.608802 1.830583 -1.373436
0.590137 1.825124 -1.376686
0.573199 1.825124 -1.383824
0.556174 1.825124 -1.390754
0.539065 1.825124 -1.397474
0.521876 1.825124 -1.403984
0.504607 1.825124 -1.410283
0.487263 1.825124 -1.416369
0.469845 1.825124 -1.422242
0.452357 1.825124 -1.427900
0.434800 1.825124 -1.433344
0.417178 1.825124 -1.438572
0.399493 1.825124 -1.443583
0.381748 1.825124 -1.448376
0.363946 1.825124 -1.452952
0.346088 1.825124 -1.457309
0.328179 1.825124 -1.461446
0.310220 1.825124 -1.465363
0.292214 1.825124 -1.469060
0.274165 1.825124 -1.472535
0.256074 1.825124 -1.475789
0.237944 1.825124 -1.478820
0.219779 1.825124 -1.481629
0.201580 1.825124 -1.484214
0.183352 1.825124 -1.486576
0.165095 1.825124 -1.488714
0.146814 1.825124 -1.490628
0.128511 1.825124 -1.492317
0.110188 1.825124 -1.493782
0.091849 1.825124 -1.495022
0.073496 1.825124 -1.496036
0.055131 1.825124 -1.496825
0.036759 1.825124 -1.497389
0.018381 1.825124 -1.497728
0.000000 1.825124 -1.497840
-0.018381 1.825124 -1.497728
-0.036759 1.825124 -1.497389
-0.055131 1.825124 -1.496825
-0.073496 1.825124 -1.496036
-0.091849 1.825124 -1.495022
-0.110188 1.825124 -1.493782
-0.128511 1.825124 -1.492317
-0.146814 1.825124 -1.490628
-0.165095 1.825124 -1.488714
-0.183352 1.825124 -1.486576
-0.201580 1.825124 -1.484214
-0.219779 1.825124 -1.481629
-0.237944 1.825124 -1.478820
-0.256074 1.825124 -1.475789
-0.274165 1.825124 -1.472535
0.712587 2.086280 -1.373436
0.691330 2.073236 -1.373436
0.670333 2.060662 -1.373436
0.649587 2.048547 -1.373436
0.629080 2.036878 -1.373436
0.608802 2.025645 -1.373436
0.588744 2.014837 -1.373436
0.568896 2.004444 -1.373436
0.549248 1.994456 -1.373436
0.529793 1.984865 -1.373436
0.510521 1.975662 -1.373436
0.491423 1.966838 -1.373436
0.472493 1.958387 -1.373436
0.453722 1.950300 -1.373436
0.435103 1.942571 -1.373436
0.416627 1.935193 -1.373436
0.398289 1.928161 -1.373436
0.380081 1.921468 -1.373436
0.361996 1.915108 -1.373436
0.344028 1.909077 -1.373436
0.326170 1.903370 -1.373436
0.308415 1.897982 -1.373436
0.290759 1.892908 -1.373436
0.273193 1.888145 -1.373436
0.255714 1.883689 -1.373436
0.238314 1.879536 -1.373437
0.220988 1.875683 -1.373436
0.203730 1.872128 -1.373436
0.186535 1.868866 -1.373437
0.169397 1.865897 -1.373436
0.152311 1.863217 -1.373436
0.135272 1.860825 -1.373436
0.118273 1.858719 -1.373436
0.101311 1.856896 -1.373436
0.084379 1.855356 -1.373436
0.067473 1.854098 -1.373436
0.050587 1.853120 -1.373436
0.033716 1.852422 -1.373436
0.016855 1.852004 -1.373436
0.000000 1.851865 -1.373436
-0.016855 1.852004 -1.373436
-0.033716 1.852422 -1.373436
-0.050587 1.853120 -1.373436
-0.067473 1.854098 -1.373436
-0.084379 1.855356 -1.373436
-0.101311 1.856896 -1.373436
-0.118273 1.858719 -1.373436
-0.135272 1.860825 -1.373436
-0.152311 1.863217 -1.373436
-0.169397 1.865897 -1.373436
-0.186535 1.868866 -1.373437
-0.203730 1.872128 -1.373436
-0.220988 1.875683 -1.373436
-0.238314 1.879536 -1.373437
-0.255714 1.883689 -1.373436
-0.273193 1.888145 -1.373436
0.712587 2.315684 -1.373436
0.691330 2.301206 -1.373436
0.670333 2.287250 -1.373436
0.649587 2.273802 -1.373436
0.629080 2.260850 -1.373436
0.608802 2.248382 -1.373436
0.588744 2.236386 -1.373436
0.568896 2.224849 -1.373436
0.549248 2.213763 -1.373436
0.529793 2.203118 -1.373436
0.510521 2.192902 -1.373436
0.491423 2.183108 -1.373436
0.472493 2.173728 -1.373436
0.453722 2.164752 -1.373436
0.435103 2.156173 -1.373436
0.416627 2.147984 -1.373436
0.398289 2.140179 -1.373436
0.380081 2.132750 -1.373436
0.361996 2.125691 -1.373436
0.344028 2.118997 -1.373436
0.326170 2.112662 -1.373436
0.308415 2.106681 -1.373436
0.290759 2.101049 -1.373436
0.273194 2.095762 -1.373436
0.255714 2.090816 -1.373436
0.238314 2.086207 -1.373436
0.220988 2.081930 -1.373436
0.203730 2.077984 -1.373436
0.186535 2.074364 -1.373436
0.169397 2.071068 -1.373436
0.152311 2.068094 -1.373436
0.135272 2.065438 -1.373436
0.118273 2.063100 -1.373436
0.101311 2.061077 -1.373436
0.084379 2.059368 -1.373436
0.067473 2.057972 -1.373436
0.050587 2.056886 -1.373436
0.033716 2.056112 -1.373436
0.016855 2.055648 -1.373436
0.000000 2.055493 -1.373436
-0.016855 2.055648 -1.373436
-0.033716 2.056112 -1.373436
-0.050587 2.056886 -1.373436
-0.067473 2.057972 -1.373436
-0.084379 2.059368 -1.373436
-0.101311 2.061077 -1.373436
-0.118273 2.063100 -1.373436
-0.135272 2.065438 -1.373436
-0.152311 2.068094 -1.373436
-0.169397 2.071068 -1.373436
-0.186535 2.074364 -1.373436
-0.203730 2.077984 -1.373436
-0.220988 2.081930 -1.373436
-0.238314 2.086207 -1.373436
-0.255714 2.090816 -1.373436
-0.273194 2.095762 -1.373436
0.712587 2.581498 -1.373436
0.691330 2.565358 -1.373436
0.670333 2.549800 -1.373436
0.649587 2.534809 -1.373436
0.629080 2.520370 -1.373436
0.608802 2.506471 -1.373436
0.588744 2.493097 -1.373436
0.568896 2.480237 -1.373436
0.549249 2.467879 -1.373436
0.529793 2.456011 -1.373436
0.510521 2.444623 -1.373436
0.491423 2.433705 -1.373436
0.472493 2.423247 -1.373436
0.453722 2.413241 -1.373436
0.435103 2.403677 -1.373436
0.416627 2.394549 -1.373436
0.398289 2.385847 -1.373436
0.380081 2.377565 -1.373436
0.361996 2.369696 -1.373436
0.344028 2.362233 -1.373436
0.326170 2.355171 -1.373436
0.308416 2.348504 -1.373436
0.290759 2.342226 -1.373436
0.273193 2.336332 -1.373436
0.255714 2.330818 -1.373436
0.238314 2.325680 -1.373436
0.220988 2.320913 -1.373436
0.203730 2.316513 -1.373436
0.186535 2.312478 -1.373436
0.169397 2.308803 -1.373436
0.152311 2.305487 -1.373436
0.135272 2.302528 -1.373436
0.118273 2.299921 -1.373436
0.101311 2.297666 -1.373436
0.084379 2.295761 -1.373436
0.067473 2.294204 -1.373436
0.050587 2.292994 -1.373436
0.033716 2.292130 -1.373436
0.016855 2.291613 -1.373436
0.000000 2.291440 -1.373436
-0.016855 2.291613 -1.373436
-0.033716 2.292130 -1.373436
-0.050587 2.292994 -1.373436
-0.067473 2.294204 -1.373436
-0.084379 2.295761 -1.373436
-0.101311 2.297666 -1.373436
-0.118273 2.299921 -1.373436
-0.135272 2.302528 -1.373436
-0.152311 2.305487 -1.373436
-0.169397 2.308803 -1.373436
-0.186535 2.312478 -1.373436
-0.203730 2.316513 -1.373436
-0.220988 2.320913 -1.373436
-0.238314 2.325680 -1.373436
-0.255714 2.330818 -1.373436
-0.273193 2.336332 -1.373436
0.608802 2.810645 -1.373436
0.588744 2.795648 -1.373436
0.568896 2.781227 -1.373436
0.549249 2.767369 -1.373436
0.529793 2.754061 -1.373436
0.510521 2.741291 -1.373436
0.491423 2.729048 -1.373436
0.472493 2.717321 -1.373436
0.453722 2.706101 -1.373436
0.435103 2.695377 -1.373436
0.416627 2.685140 -1.373436
0.398289 2.675383 -1.373436
0.380081 2.666095 -1.373436
0.361996 2.657271 -1.373436
0.344028 2.648903 -1.373436
0.326170 2.640984 -1.373436
0.308415 2.633507 -1.373436
0.290759 2.626467 -1.373436
0.273193 2.619859 -1.373436
0.255714 2.613676 -1.373436
0.238314 2.607913 -1.373436
0.220988 2.602568 -1.373436
0.203730 2.597634 -1.373436
0.186535 2.593109 -1.373436
0.169397 2.588989 -1.373436
0.152311 2.585271 -1.373436
0.135272 2.581952 -1.373436
0.118273 2.579029 -1.373436
0.101311 2.576500 -1.373436
0.084379 2.574363 -1.373436
0.067473 2.572618 -1.373436
0.050587 2.571261 -1.373436
0.033716 2.570293 -1.373436
0.016855 2.569712 -1.373436
0.000000 2.569519 -1.373436
-0.016855 2.569712 -1.373436
-0.033716 2.570293 -1.373436
-0.050587 2.571261 -1.373436
-0.067473 2.572618 -1.373436
-0.084379 2.574363 -1.373436
-0.101311 2.576500 -1.373436
-0.118273 2.579029 -1.373436
-0.135272 2.581952 -1.373436
-0.152311 2.585271 -1.373436
-0.169397 2.588989 -1.373436
-0.186535 2.593109 -1.373436
-0.203730 2.597634 -1.373436
-0.220988 2.602568 -1.373436
-0.238314 2.607913 -1.373436
-0.255714 2.613676 -1.373436
-0.273193 2.619859 -1.373436
